# .PCD v0.7 - Point Cloud Data file format
VERSION 0.7
FIELDS x y z
SIZE 4 4 4
TYPE F F F
COUNT 1 1 1
WIDTH 1552
HEIGHT 1
VIEWPOINT 0 0 0 1 0 0 0
POINTS 1552
DATA ascii
12.127234 -28.834146 8.6403503
-3.4194131 -13.84853 20.4823
-35.697113 19.180229 33.962601
-9.3441095 -7.8015218 57.921398
-2.1783056 -15.042261 13.8661
37.571922 -54.895615 40.593716
-39.580444 22.581398 20.105795
-33.432716 16.727978 17.918312
5.8402319 -22.445248 49.643364
-34.031109 17.337694 6.0189757
-24.013855 6.8862114 14.238709
33.352592 -50.270588 34.248806
20.478981 -36.597664 -0.51841855
-31.90416 14.960113 2.1238697
20.50444 -37.017067 5.2656422
-35.537037 19.894081 32.739277
-36.908169 19.664864 9.4769211
34.566128 -51.149551 42.351284
-38.267178 21.84837 8.1187258
10.89079 -27.394083 19.758055
6.9227982 -23.798632 15.430483
12.662765 -29.15188 21.483086
-8.7919207 -6.5262418 32.214012
13.717181 -30.041288 1.0430582
14.077753 -30.834946 44.064499
-0.55384254 -16.403893 12.03736
15.839905 -31.99535 0.48829985
-35.999882 19.700718 1.3339309
10.181438 -26.852951 2.9033911
38.904961 -54.925571 44.806789
22.07008 -38.703346 0.59851193
11.495805 -28.137596 44.742836
-16.363724 -0.6865015 57.834194
36.928692 -54.040474 38.214508
11.614398 -28.248835 2.0438244
36.878445 -53.654953 34.822693
-38.227242 21.26293 10.666924
-10.326209 -6.060317 35.411839
4.6942558 -20.984108 14.837048
-36.872108 20.024181 16.543196
-35.814606 19.526707 18.109358
-12.201021 -4.7300549 58.313198
10.540887 -27.120876 10.800835
6.4784489 -23.060474 6.0208216
-32.020622 15.594954 0.46079352
-28.893387 12.333095 50.335873
37.846008 -54.270618 37.957283
35.853165 -52.707104 33.590645
-34.051601 17.577873 -0.29570106
16.55788 -32.6245 23.634171
-15.680433 -0.62617779 19.492733
-39.09127 23.816113 24.949867
-25.510195 8.8438416 14.208833
10.305711 -26.627834 46.036545
-12.621378 -3.5620756 28.110527
-23.511467 7.1276159 55.714592
-30.829872 14.642211 2.8689623
18.846497 -35.123436 5.8026233
38.282822 -54.379436 36.518673
43.238075 -58.097042 48.583279
2.0465069 -18.492661 10.053678
22.915764 -38.653004 3.4874163
38.151062 -54.131062 38.525478
-15.106608 -1.5485959 20.741465
-38.860909 22.537643 13.466455
-2.6237001 -12.841837 26.973444
17.815845 -33.576481 6.3479662
14.778574 -30.533115 0.59079021
35.934998 -52.445591 32.139008
33.054638 -48.707882 40.028019
-31.641617 15.684967 4.9253044
31.262821 -47.021049 35.350842
-37.349636 21.772493 3.8134418
37.466957 -53.981262 32.651295
40.528473 -56.235641 47.97794
-30.832922 14.669141 1.3478546
-35.408123 20.015636 16.536459
34.586002 -50.892754 31.972281
42.425953 -57.844223 48.505768
-20.38398 4.6835065 14.987264
5.8907728 -22.223656 15.511992
-38.007286 21.969034 5.306428
-34.769764 19.232199 30.399101
-3.4307146 -12.527117 57.733536
38.366177 -54.617065 35.660946
22.307125 -37.723667 36.635143
-2.4535642 -13.443911 22.925444
-4.9308238 -11.382684 30.25507
-20.169128 4.3103304 58.191906
14.576447 -30.718029 0.4210614
21.452415 -37.282429 33.126488
20.989981 -36.418873 29.162081
-34.940372 19.156601 8.1342516
39.205956 -55.416309 33.40575
-33.562653 18.200563 17.72645
31.50996 -47.209351 36.874046
-10.278501 -4.7747412 31.719849
-33.191578 17.848057 -0.035827108
-3.5732017 -12.716813 19.047501
-35.819496 19.787893 25.638433
-5.7528791 -9.8780298 30.857771
-3.4391718 -12.697617 16.956028
-6.02425 -10.13076 58.429886
7.0102983 -22.718681 15.682665
16.114925 -32.050694 44.311733
-34.851593 19.571516 0.86676955
22.275726 -37.801556 4.634562
-33.527874 17.768377 44.722282
-2.7398896 -13.439957 14.835401
-35.337727 19.793663 13.152079
7.9350586 -24.075855 15.165604
-12.587313 -2.6958427 23.15148
-34.061913 19.247166 28.973883
-2.4628949 -12.683847 22.071571
-2.1633406 -13.440143 24.123304
31.649216 -47.518192 33.404194
-28.522243 13.012136 15.268351
-39.783779 23.837345 20.409222
12.022242 -27.38414 46.551758
-32.996025 18.327816 26.184023
7.5199671 -23.719963 15.688371
0.70934296 -16.584906 55.296501
6.675447 -22.328989 14.65874
-1.3549857 -14.600492 12.735408
38.17292 -52.372669 41.16925
22.317188 -37.380535 -0.59485465
-31.152021 15.588918 0.09493544
-2.12673 -12.795006 25.12734
-21.988968 6.4435263 57.56601
20.936176 -36.432846 5.5919352
-36.912369 21.180689 25.839443
16.665733 -31.599617 21.867481
-33.609283 18.407854 26.303837
-3.2844944 -12.150866 27.966354
23.207529 -38.932285 1.942508
19.403641 -35.322189 41.316654
36.263317 -51.857712 30.234102
-26.066307 10.216026 54.012428
8.3648319 -23.77779 49.806225
38.36245 -54.17783 30.918478
40.932552 -56.225605 32.561584
32.310406 -47.936546 31.911877
6.4609332 -21.035154 15.279108
7.2748232 -22.664639 5.3072882
-9.5624876 -6.2208133 59.5187
-31.343803 16.314425 5.6852269
40.731522 -54.686138 45.411774
-34.344547 19.183317 25.942266
-17.601994 1.8370795 58.944298
40.618038 -55.99115 34.755482
-30.168617 14.90716 49.979267
-38.094742 23.286545 26.156576
20.69768 -35.498444 26.676447
-11.286345 -3.233932 26.57835
38.85564 -54.05571 37.719021
0.83786917 -16.483418 10.804356
10.435374 -25.806269 2.7167706
-35.823158 20.29739 35.744183
22.979723 -38.074966 0.20502847
35.573502 -50.370899 43.379417
18.884911 -34.361145 -0.69332844
32.532532 -46.418919 39.698322
13.334269 -28.529419 1.1440588
-12.688669 -2.8889484 59.779472
23.599905 -38.48922 1.3181175
-0.76324177 -14.302635 57.431423
20.296532 -35.130524 43.040752
31.669195 -46.437859 38.180424
-35.142754 19.986347 17.386066
15.403479 -30.308701 8.1097441
22.621 -38.008556 33.537518
2.7407603 -18.077555 9.6133204
37.564415 -52.60603 39.690041
21.498383 -35.565811 -0.4794229
29.391739 -44.737957 32.812817
20.101025 -34.854477 -0.61161244
30.584372 -46.191456 34.479488
16.183142 -31.248039 45.452816
12.959604 -28.202459 9.2931662
-26.637672 12.109348 14.532857
-39.586548 24.771969 23.638245
30.795277 -45.932652 36.667873
-31.240927 16.58337 16.589842
33.751877 -48.407703 29.741611
13.804102 -28.58881 46.446362
28.807642 -44.01894 35.415691
24.90724 -40.016838 34.20792
23.862478 -38.184006 2.7044694
8.6717482 -23.728453 15.158659
38.379204 -53.279087 38.335056
-10.782444 -4.1076345 30.274946
6.238348 -20.480473 14.779308
9.2111416 -24.44054 14.549933
38.553295 -53.499245 45.830791
23.814085 -38.866219 35.741611
-21.454872 6.9307404 14.189331
-29.93404 15.40888 3.9576712
-29.244438 15.13201 2.0152087
-3.032393 -11.626808 19.669884
-11.554424 -3.6346354 28.642862
26.224415 -41.298035 32.371387
41.226475 -55.664528 30.036602
23.557949 -38.6283 32.228275
16.245432 -29.759647 19.7715
-31.248159 17.071175 -0.7395699
-32.58791 18.483635 26.546993
13.204774 -27.698505 19.134556
-2.8291264 -12.280584 16.017099
8.1678963 -22.512995 14.714122
43.758617 -57.455772 47.853535
18.451477 -32.522903 22.276747
10.777984 -25.555046 17.435837
-34.007057 18.946854 7.4097905
42.039043 -56.95826 48.474369
-39.191246 24.474791 15.484493
-37.696236 23.071861 5.3382626
33.865791 -47.618145 41.644646
28.664108 -42.869495 30.034672
-6.0559263 -8.7675142 59.813339
-24.354759 9.377409 56.314045
-22.893629 8.5117359 13.918942
-2.0497532 -12.925182 14.2531
22.33997 -37.131504 28.863165
-32.080959 17.978722 -0.32029676
38.077736 -52.822891 29.038866
-29.664989 15.284861 0.70051432
18.250124 -32.77486 -0.2104615
22.718412 -37.468525 39.213245
-33.873711 19.410639 8.1720047
2.4853797 -17.229153 55.769646
-16.220139 2.0821671 17.441273
-14.902185 0.27532959 19.131792
-33.700432 20.250397 17.738832
27.478382 -42.111641 30.847507
19.949116 -34.214825 24.424522
7.3171105 -20.870232 14.326327
26.36356 -40.877304 36.729244
23.893265 -38.598297 30.398502
-1.0171442 -13.805058 12.8084
-36.67572 22.86916 3.5767367
37.856781 -50.920795 39.249012
-10.285742 -2.8908989 26.576757
23.032824 -37.226608 40.370518
23.61092 -37.930622 3.3348043
-24.352009 10.197468 13.995726
-27.483358 13.55262 54.105526
-4.4645777 -9.9069147 28.36413
7.9805226 -19.58357 14.361916
-30.104771 16.188524 -0.18258017
0.69830513 -15.246096 11.17908
-39.744991 25.902252 22.304817
25.145582 -39.393394 29.498003
43.162827 -56.603001 30.688049
-32.428333 18.833965 47.97192
24.776539 -39.420795 36.70673
21.233862 -35.621437 5.7640643
-39.73151 25.607075 19.660414
15.715508 -29.034779 0.69548428
22.759897 -37.198902 4.5352817
-34.443592 20.369947 0.92364067
27.735243 -41.882896 37.536564
39.907299 -54.577583 37.776772
37.480457 -51.176308 44.572727
-33.947987 19.961857 11.267191
35.981857 -49.652393 27.944967
-18.413324 4.7052412 15.543682
13.585915 -27.864473 9.3953114
-34.805088 20.81007 42.174015
-1.9435244 -12.001573 22.016705
14.408678 -27.723829 1.1900033
21.240955 -34.557484 44.566921
-8.9670048 -5.400527 60.756397
-30.872242 17.195326 6.0104933
23.711908 -37.447311 0.66573626
25.35758 -39.153263 38.457043
-38.565464 24.979982 12.734697
19.137522 -32.089554 -0.29609823
30.851107 -44.663017 38.454437
13.453522 -27.258081 48.039238
-19.888512 6.1995192 14.681254
-12.41547 -1.3072624 21.919964
35.022141 -47.841648 42.965275
10.057203 -23.950905 14.700714
40.107613 -52.948681 43.413864
7.6804819 -21.475512 5.7378516
41.362907 -55.476749 37.737507
-38.72205 24.640755 25.965538
39.457584 -53.077782 39.221397
-35.693726 21.662287 34.808228
-6.9811521 -7.5693994 30.400536
-32.538452 19.572395 7.5704255
-2.6540685 -11.385202 17.678146
-34.371799 20.298233 15.264788
-11.342862 -2.861186 60.949997
38.107185 -50.795834 38.628712
-8.6922207 -5.1935463 29.722752
-35.411186 22.601912 33.739166
-16.903797 2.7287416 60.241299
-13.987894 -0.1815052 60.7239
10.381327 -24.288273 16.195801
8.0133486 -20.962938 53.799812
-2.2958617 -11.57205 59.440453
43.296955 -56.496704 35.269363
11.055771 -24.785208 3.0481112
39.248646 -51.290619 41.135513
10.745497 -24.25246 50.927845
-33.736633 21.130806 1.1288049
38.499779 -52.159985 38.533779
-32.146214 19.289709 25.921614
-19.587055 5.5310764 59.552998
-10.078815 -3.7089264 28.736013
-34.747562 20.584492 25.834286
23.810898 -37.714226 27.888294
22.318283 -35.25539 5.9997463
19.386059 -31.963715 6.6912045
-39.126961 25.639051 25.335772
22.390945 -36.118736 42.659439
-1.924746 -11.784456 15.515054
-32.485935 19.286179 17.547998
24.325781 -37.550423 3.6547112
-21.815716 8.7023163 59.014034
22.638039 -36.163292 -0.30055505
-2.6799989 -10.285373 26.022228
-8.9946003 -4.6177864 29.912804
-39.523781 26.113522 19.202873
31.999338 -45.161682 27.91785
-1.1576047 -12.647665 13.834901
-24.413088 10.556202 56.973618
-33.91293 20.71063 17.290274
-29.001347 15.696503 2.3536258
8.1678295 -20.419807 15.553698
42.538212 -55.055267 27.962723
-1.6847572 -11.198874 22.761181
-0.12713766 -13.527178 12.5921
18.557785 -31.550381 46.470394
16.420279 -30.769707 0.33146772
33.308083 -45.569874 41.072617
18.794783 -30.621399 0.025461681
25.420666 -38.78788 27.852242
-35.188728 22.259007 39.796867
-33.413731 20.589752 28.707142
-29.428385 15.995544 3.7991233
15.334702 -28.458946 8.6234932
18.239647 -31.21501 7.1276412
39.413857 -52.684994 27.580978
9.1323605 -20.648998 15.653132
1.3395591 -14.768612 11.355937
23.431034 -36.476234 25.835114
-37.226875 24.842268 8.4167461
31.614616 -44.716587 39.340675
-25.767771 12.739025 14.638328
-33.690098 21.052099 16.144148
13.001207 -25.850124 17.255533
-34.879505 21.951426 2.1901464
15.808235 -28.767126 47.559437
-38.01442 24.788689 25.73147
-2.322196 -10.979849 18.872177
10.636248 -21.938423 15.039156
25.055275 -37.439049 2.4115252
28.214148 -41.098713 39.103416
-29.630848 16.873785 0.011206195
-29.026085 15.886055 1.2107053
14.042273 -27.293568 9.5519447
3.5006218 -16.827196 56.905598
-34.351913 21.869816 44.5625
40.080925 -52.23811 45.577324
-36.696472 24.403767 5.4541502
3.5504384 -17.265429 9.7110386
-30.56708 17.260563 50.836441
43.268707 -56.348549 47.713795
-39.422985 26.477215 21.905655
26.581184 -39.50359 39.291317
18.214363 -30.599045 19.764488
23.677578 -36.566757 4.9425001
-5.9226804 -6.8365145 61.474514
0.86087227 -13.455544 59.214375
-13.652925 1.1575999 19.692688
25.125412 -36.911331 0.9845286
-33.947651 20.332098 45.113403
38.328011 -50.364803 26.136173
-2.4180129 -8.6069012 25.179621
-21.108667 8.5101089 14.309993
-33.095676 21.169163 14.713844
-8.9989986 -3.3754728 28.013123
-32.92997 20.28228 25.796665
25.996685 -38.347763 40.499767
28.311275 -41.023293 27.713261
-33.895191 21.318581 25.465963
-5.4574695 -8.3352337 29.023727
36.44146 -48.506496 43.962154
45.596672 -57.173145 33.977112
-33.574028 23.931843 2.8038168
11.683628 -23.336704 15.6531
-31.927723 20.700964 8.3826685
-1.8138804 -10.546618 23.87842
-22.478138 9.9794254 14.169125
-6.0935154 -6.2410645 28.131998
-29.245031 17.165699 5.5943732
-28.207155 16.001423 2.5282993
-0.83383942 -11.823068 14.972127
-29.336937 16.158642 16.190752
-17.108044 4.7621117 16.255919
-1.0610228 -11.255145 60.280674
-30.809237 18.306805 -0.24700159
-8.3036823 -4.5123725 61.798298
-23.853485 11.612929 14.376184
39.910175 -52.178055 42.325882
16.104471 -27.829922 17.78801
-35.193642 23.322607 37.98542
-32.720158 20.950127 11.751107
22.738335 -35.001495 5.920331
0.23336744 -12.937077 13.206092
38.783897 -51.063755 40.064499
25.128368 -37.414043 41.460674
44.565643 -56.047775 28.266851
22.569599 -35.105671 24.169785
-34.871502 23.57086 33.053543
-9.862196 -1.8617873 25.171349
23.568176 -35.606091 44.056782
40.58572 -53.2267 39.702003
24.112961 -35.718781 -0.36450106
41.94215 -54.655678 39.499706
-29.808559 17.995506 6.3465614
-37.901089 25.673759 12.9274
36.387295 -48.723946 26.506104
-1.3522038 -11.183935 21.303991
-38.769497 26.507248 24.482023
-10.763479 -1.8100085 61.9799
2.1566978 -14.749385 11.552203
-38.954441 26.703928 19.303713
12.176096 -24.374672 3.4050796
-34.893787 23.12134 42.366428
-7.2208605 -3.5272927 28.007895
-13.498335 1.0158806 61.746498
7.7898622 -18.837927 14.716539
8.1705399 -20.456451 6.7656512
-16.433315 3.9643111 61.217197
4.1539774 -16.292219 10.73472
-19.235157 6.7800112 60.3974
-23.612457 11.208593 58.136097
-27.862173 16.471283 1.1984829
-1.6832886 -10.690203 18.4918
10.738152 -23.103411 14.602628
25.602177 -37.646233 25.980438
-26.160374 13.82872 56.15424
-30.953527 19.694599 17.789282
-7.2735605 -4.4952259 27.776529
-32.440193 21.11286 17.938065
22.542728 -34.445908 45.17746
31.796764 -43.766388 26.690695
-28.440098 16.541756 4.1738839
-15.192308 3.5903373 17.881584
15.23361 -26.974232 49.28595
31.614908 -43.276237 40.249943
42.555027 -53.079697 45.882103
20.703457 -32.46043 -0.58508003
28.792103 -40.099068 40.446087
24.014568 -35.47224 5.0341935
-29.312527 17.256552 53.017986
-19.212509 6.968224 14.995811
40.298363 -51.791553 25.913271
43.488708 -53.512585 44.702572
20.723425 -32.107281 20.731693
12.630861 -23.810249 52.358192
-31.070488 20.656134 25.017218
-31.358891 19.105715 -0.0084150657
39.826889 -51.207951 39.11636
-32.991676 21.979069 16.974995
-37.217274 25.374817 24.887264
16.080635 -27.174021 8.1408787
41.449646 -53.009892 40.363472
23.144939 -34.287434 -0.29075775
5.5646009 -17.544601 56.939583
-5.922307 -3.406559 26.702681
-10.249345 -1.06394 24.009312
-38.314915 26.91227 22.417379
3.709682 -14.967334 58.898075
25.141951 -36.321247 3.5203736
-32.175591 21.132559 0.74856675
-31.73188 19.789265 49.891144
-0.78059578 -10.726773 17.636126
-31.107868 19.433949 7.2877426
0.71335411 -12.56742 14.034623
-36.142567 24.202551 4.3819208
43.369125 -55.147945 39.511021
8.4562778 -18.635872 15.095686
25.470123 -36.553299 2.3096476
-34.227654 23.196198 31.558281
39.150009 -50.222534 44.913235
2.2607636 -14.108583 12.495899
-32.790695 22.036308 48.480419
35.100498 -46.183823 25.47019
42.989738 -52.901196 44.203201
21.225815 -33.383339 -0.51365703
-25.537209 13.918387 15.181347
10.392864 -19.757339 14.460841
7.2590384 -18.642323 8.8170576
13.512259 -24.617672 16.239344
28.078041 -38.899052 25.48484
-30.176355 20.16114 0.17719471
45.495872 -54.387302 43.82766
42.380688 -53.170967 26.017996
45.145782 -54.559319 45.1413
-33.717915 22.481701 2.000685
-31.046104 20.327744 25.912645
20.856098 -31.423708 47.243408
18.495914 -29.334904 6.8844376
18.127707 -28.512966 48.573055
23.64736 -35.022442 23.65609
26.120899 -36.885075 42.582584
-29.329483 18.7656 -0.58347219
-8.6654663 -2.3348517 26.7416
-32.700676 22.56753 28.870749
-0.68706703 -10.731773 20.515701
-33.097885 21.782829 24.735762
14.733006 -26.514267 9.318368
-37.659206 26.521942 23.616089
27.569031 -38.093571 41.649364
-34.965889 24.350002 37.175846
-28.537052 17.247139 -0.10870791
-37.602127 26.863638 19.3785
10.211632 -20.592464 15.366818
-11.193986 0.86270142 22.310175
42.360214 -52.313038 42.584156
16.825054 -27.141367 49.44437
33.236088 -43.381454 25.071117
40.114799 -50.987339 40.173443
25.197836 -36.132652 0.86843932
15.599938 -26.542213 2.1553502
-35.033543 24.494661 39.905079
-27.948879 17.515911 4.2598233
-36.558029 25.712872 11.173848
-37.262772 26.272507 15.62415
-7.249423 -3.5265884 62.830326
45.484905 -56.840752 30.107761
22.705587 -33.306278 5.2859898
38.709129 -48.248547 44.842113
-28.841867 17.991657 5.5510278
-0.86455345 -10.011347 22.013046
-20.496819 9.3743954 14.918538
-22.07814 11.477362 15.105779
26.805111 -37.270088 24.678646
42.011887 -52.101215 41.874611
-29.331051 19.226955 17.718662
-0.20142078 -9.8997231 61.550266
-18.041759 7.1633387 15.810472
-2.6782842 -7.3357401 25.574585
-24.225708 13.718367 15.478857
17.856646 -29.698195 0.67088729
4.363245 -15.183756 12.587059
2.0566692 -13.072685 14.168319
21.555359 -30.797939 -0.1801891
23.302179 -33.588299 46.023632
40.535221 -50.970833 41.282581
-36.208012 25.499632 23.786955
-32.54385 22.098732 1.1087141
-27.412144 17.243841 2.5028534
38.039688 -47.626762 24.299791
-27.457037 17.366798 1.2273127
-27.60652 16.748112 55.160011
-0.011784554 -10.050613 20.789181
-24.038584 13.153573 58.226768
18.693565 -28.528255 17.633369
-35.076233 24.933241 4.6825194
0.96568155 -11.699298 15.87623
12.745631 -23.428776 4.5190539
46.970737 -57.034599 32.890984
25.035997 -34.803299 45.135651
24.799492 -35.148037 1.0005819
-32.368462 22.68998 15.160922
-13.040014 2.9476943 19.924021
-21.287716 10.546371 59.954399
-32.81802 22.39221 23.888912
-30.590519 19.835386 51.787697
-9.9905062 -0.71739435 62.871899
44.298512 -56.20285 37.16914
12.215168 -21.83927 15.109856
-30.145859 20.703661 25.29158
-18.783922 8.1390276 61.113098
47.26302 -56.864197 35.647564
43.215561 -53.194645 41.859547
33.894833 -44.301506 41.972889
-5.542491 -4.1713219 26.558868
17.549316 -27.342356 2.1011465
-15.871151 5.3028784 62.022297
-28.043625 17.975286 0.072099052
-12.867371 2.3109612 62.620197
-8.7519264 -0.63831377 24.905106
-15.748292 5.9864888 17.421402
-35.489182 26.191916 20.86414
-29.670479 19.754015 6.3170872
44.704903 -55.648315 38.580772
-34.681541 25.387184 5.457727
21.615337 -32.437958 5.8392878
32.210091 -42.137829 41.303242
27.913033 -36.130592 43.647369
8.6067467 -18.48381 56.800133
0.15613699 -10.619678 19.89958
-4.2853012 -5.4812989 62.952297
14.990925 -25.399588 9.0709953
-34.553528 26.723015 44.044785
47.745697 -56.350647 30.536463
6.8450661 -16.649759 58.19809
25.162159 -35.234898 2.8280096
24.982796 -34.304951 22.388401
-7.2515507 -2.7595272 27.494171
47.066048 -56.639156 32.649582
-35.416985 25.460636 8.12959
-31.854683 22.571075 12.220478
23.481522 -33.095119 21.508253
9.7808275 -19.332449 15.331234
41.84108 -51.063038 45.154861
10.837423 -21.114113 14.923429
-4.1658783 -7.0676012 27.056948
45.62965 -54.441231 25.655649
-32.531094 22.096365 18.037758
0.81542158 -11.060209 16.9876
-11.350471 2.5882511 21.803942
46.748817 -55.453938 26.49165
35.436413 -44.755005 24.28237
3.0179572 -12.416486 60.732975
36.466064 -46.40992 44.076176
14.500891 -24.30884 4.0900478
-33.737659 23.84338 46.510151
-0.97971129 -8.5482483 22.869112
-19.405897 9.3015776 15.673855
29.23061 -39.480431 25.167807
23.630341 -33.0816 -0.47135642
48.461281 -57.027905 33.979778
19.652138 -29.581192 6.1169982
-28.754192 19.236641 5.0016761
23.437389 -32.438606 5.0646567
-31.788025 23.157166 19.187235
44.867298 -53.651749 41.92292
-36.020821 26.119186 16.02177
4.2794247 -13.633396 15.52463
-31.331614 21.752598 0.85035676
7.5376968 -16.993191 11.780488
19.351662 -28.580389 1.5026237
29.256687 -38.067352 42.37981
-34.582977 25.435846 36.570477
17.445053 -25.349308 15.74104
43.934097 -52.47327 45.030651
-30.664024 21.243206 23.738962
25.703075 -34.928001 2.2623961
-34.851799 26.146408 42.120529
-17.226233 7.5683479 16.552347
-28.40786 19.042154 0.60766387
2.5155206 -12.196493 16.103983
-34.48275 25.487194 21.438513
17.791901 -27.085274 6.2981048
-33.904133 24.934206 32.46212
-32.627697 23.41996 16.939142
16.013628 -25.644238 7.6591582
43.861866 -52.974678 42.943016
-30.801273 21.844046 7.7662177
20.693075 -30.468685 19.053825
10.306239 -19.523453 9.0539427
0.25879574 -8.5196152 21.417311
-31.719715 22.5954 22.216263
31.550531 -40.218578 41.881626
25.254055 -34.240986 0.56101799
46.582973 -55.169823 39.002831
-32.479259 23.300919 18.576948
-9.8192043 0.91957903 23.410772
24.362297 -33.603966 4.3585162
47.316689 -56.204166 31.225712
13.730709 -23.249083 10.484186
-21.286438 12.388125 16.529024
-29.799543 20.632965 24.693377
14.681755 -23.392195 53.18063
-34.389923 25.380346 9.8204336
49.285538 -55.747929 28.948137
1.2101383 -10.669214 19.165546
-27.549362 18.454714 2.1152365
10.51403 -19.828285 15.281116
15.106276 -24.148762 4.8236389
-7.1665335 -0.50403857 25.701612
-28.677616 19.350019 54.116123
44.356277 -52.197056 24.106724
-25.393879 16.064802 57.299744
-19.767567 10.504866 16.173759
-7.1190777 -1.6643672 26.63456
-25.207262 16.351574 17.582363
24.771139 -33.407352 46.100365
18.69824 -27.15694 16.60272
-1.4891686 -7.0564966 23.899979
20.214504 -29.289904 1.419524
-31.541214 23.333565 1.6667439
-29.436001 20.887995 22.854122
-31.481125 22.244156 50.595123
37.980267 -45.471581 44.80022
32.77663 -41.070572 42.068398
-4.3142529 -4.2141523 26.048889
21.225397 -30.278351 5.2582607
46.526291 -55.232521 32.209244
19.102997 -27.486076 2.9768763
46.658157 -55.322094 33.098534
16.965302 -25.723385 3.9732406
1.8075752 -9.7001514 19.645426
27.674929 -36.185219 23.252441
47.888725 -56.043285 28.446501
13.721025 -22.210789 15.235325
-34.475464 25.485863 16.653156
2.4497013 -11.585464 16.701401
10.489548 -19.926464 55.6721
-22.511938 14.263646 59.494812
15.80998 -24.813343 7.2893791
40.710575 -50.46624 24.645697
45.112843 -53.619621 43.127079
25.869343 -34.052822 1.5926461
-3.0681739 -5.1250467 25.723354
-29.594597 22.202272 0.65914851
-28.517483 20.103674 5.6099777
45.838547 -53.556881 24.595993
48.573841 -56.616917 35.874268
13.439842 -20.011972 14.941689
11.397406 -20.000137 9.534318
48.233646 -56.446815 33.07053
-20.502567 12.345119 60.708637
23.010824 -30.985104 47.518017
-32.793789 24.625656 48.328243
-32.783257 23.865353 17.21184
-28.084671 19.159653 18.326757
21.086748 -29.682848 4.5218077
41.275055 -49.217037 45.133362
-17.627695 8.9663467 16.836321
6.2017155 -14.501436 15.576004
12.333126 -21.099642 11.834385
-33.307369 24.889271 10.69935
-31.274778 22.981438 27.629406
-27.599861 19.444254 3.8955829
16.597944 -25.288502 5.7680278
-17.919308 10.064434 61.949375
19.75106 -27.594885 49.409843
38.297768 -46.369587 23.47377
-2.0881975 -5.7580771 25.165562
25.507141 -33.924034 2.9505701
-28.572409 20.499454 24.165867
-31.792912 23.326996 10.777378
-33.256996 24.56151 17.203522
20.196335 -28.501223 1.9435356
4.2422743 -12.863041 16.710718
-34.797699 26.082642 39.184299
-13.396788 4.6921368 19.6646
23.924191 -31.645777 0.093961053
-8.6794596 -0.0013914108 63.678097
23.831718 -31.821993 4.2194905
-30.775064 22.790386 7.5335026
45.876015 -53.531734 42.207455
-32.874241 24.461546 19.922728
6.5354595 -14.17976 60.144413
-27.655485 19.251751 0.83902574
10.670992 -19.251886 14.487468
-14.86789 7.1836324 62.954369
15.185143 -23.819878 6.0629888
13.175692 -21.701429 9.5682755
12.282804 -20.734379 9.5982256
-4.648643 -1.8126371 26.315357
25.202984 -33.165211 0.3442615
8.3811369 -16.725981 14.794571
-32.3899 24.095963 11.39412
-11.779612 4.2100124 63.647919
-30.746523 22.379488 20.847525
46.585953 -53.505047 41.403542
46.495613 -53.230602 42.729221
9.9349003 -18.465618 14.992701
48.165176 -55.664215 26.248806
1.2350016 -8.9770136 20.302759
33.645493 -41.603451 23.902681
18.547173 -25.753702 50.775993
35.434608 -42.795948 43.339821
20.525587 -28.543751 2.5453897
47.190823 -55.064919 31.140301
29.181358 -37.328403 23.599667
3.6686144 -11.012759 17.831846
1.8386693 -9.4436836 62.284966
31.319426 -38.639175 42.722954
47.212593 -55.204838 33.532784
20.707479 -28.677505 17.572489
21.06789 -29.492586 1.8298048
-0.63136649 -6.8477955 63.131786
-28.174011 20.499037 5.347198
10.657325 -18.754099 13.599948
-28.036922 20.445227 0.28594989
-33.144371 25.305103 5.2583656
-29.123089 20.868956 19.644894
24.786819 -32.728615 3.6886735
-28.726818 20.693933 21.404306
-34.202812 26.427704 36.370567
-21.419634 13.592365 17.773878
-5.2439699 -1.3174915 26.517324
-5.7975116 -2.4347656 63.830799
8.010252 -16.126421 14.254474
21.316404 -29.504368 2.6812968
-12.077583 4.5766401 21.189655
-3.007515 -4.3237343 63.831112
24.084196 -31.083649 19.776352
-32.209709 24.290634 3.2905836
-26.489649 18.712097 20.300938
-27.112381 19.032564 1.7420698
-28.575537 21.03624 24.816027
-16.203131 8.0625114 17.68
-32.18998 24.361706 8.8947783
47.947037 -54.875126 23.996956
10.120083 -17.554735 14.628573
35.774612 -42.940845 23.299732
9.6985416 -17.513977 13.580978
-27.090418 19.609581 1.3174269
-18.395481 10.646532 17.300632
23.974827 -31.462557 2.3190188
5.8711739 -13.541211 16.518784
4.0509801 -11.991293 17.110001
-29.842314 21.376631 0.21593821
-30.955246 23.515451 7.0553641
46.256943 -52.832516 43.370403
36.69363 -41.947182 44.050171
41.089832 -48.197266 23.338955
-32.561676 25.899078 31.654947
-30.718672 23.492228 1.9606903
-27.111198 19.597109 22.377392
25.336824 -32.823242 1.4436439
-24.598194 17.430616 20.679155
-28.184816 20.52725 54.456306
-35.068638 27.877682 42.181072
7.6713142 -14.937977 15.390623
-4.1253219 -2.4359787 25.452347
-34.978767 27.511677 40.655014
11.225771 -17.98999 57.607044
-31.721594 24.581316 6.3958592
50.694462 -55.809929 32.912395
-25.016542 17.366201 57.552132
43.826 -49.887352 23.077898
-30.963371 24.007627 50.877483
48.300323 -54.602665 33.750626
49.8937 -55.707302 23.80159
-14.449533 7.3956804 19.30621
44.242897 -51.43874 44.649254
30.881531 -39.158649 23.973063
5.2496204 -12.467249 17.201324
-28.296818 22.612667 25.595005
47.580441 -54.911354 30.873705
50.867477 -56.132648 34.861298
28.065641 -33.65765 45.28434
29.644241 -36.127644 43.854103
8.6311951 -16.149036 14.8871
50.105824 -55.756866 27.831955
-34.683281 27.281759 38.603397
16.492283 -22.668098 14.989667
-29.809391 22.901106 26.55578
-26.656487 19.64576 23.474184
-28.209757 21.449299 0.60405099
-0.0023579597 -6.6450295 22.354948
41.187084 -47.574432 45.343864
-27.291735 20.425659 3.0603771
49.224552 -55.059769 38.000603
-18.381334 11.863396 18.341272
-12.641295 5.9680037 20.996914
-9.7902813 3.046828 22.817261
9.7030621 -15.955052 59.180275
3.7265742 -10.070464 18.626085
-28.006947 21.233376 4.3094988
-5.6495013 0.73099232 25.865244
-33.667183 27.060566 35.591515
6.6761246 -13.12461 16.408213
25.880867 -32.284386 20.736866
-15.752262 9.9332886 19.320414
-35.10873 28.23263 43.213276
-1.0891786 -5.1185532 24.477678
46.98724 -52.976433 23.945948
-5.4619455 -0.37085032 26.259354
-22.51902 15.880297 20.247561
-29.041885 22.57081 1.304866
34.220135 -39.269791 43.339722
39.655708 -44.992046 22.461021
-31.392004 24.380894 4.425343
43.575157 -49.371006 44.979904
47.940758 -54.721512 30.704975
-35.666698 28.808971 40.490635
-34.143063 27.681204 45.231529
7.6173935 -14.321347 15.49117
-29.853909 23.255003 3.9165711
1.3815651 -7.3840046 20.9027
-35.278889 28.763332 39.24398
4.9935117 -11.738192 61.476597
20.48357 -26.585207 16.283169
32.040073 -37.831879 22.928299
-0.40497518 -5.2200289 23.418524
-37.167061 30.56275 41.719563
15.482128 -22.229338 54.146458
-24.591684 18.301483 22.664856
29.335684 -35.296276 22.333616
28.776379 -34.503681 44.755001
-7.937129 2.1733956 64.509674
-4.9135551 -0.72944093 64.597954
-18.953896 13.52184 19.77969
5.3999152 -10.744843 17.7542
50.724972 -56.221489 24.444201
50.050838 -55.835991 36.286835
-25.523388 19.749773 23.706301
-27.39316 20.90099 1.6186669
25.799519 -31.643574 46.79755
-29.827837 23.808517 27.215105
47.61869 -53.578678 23.297613
-39.000607 32.977142 39.372913
-1.7645543 -4.0826097 25.043888
-34.954212 29.070284 44.38781
48.268311 -54.478779 30.612202
51.504887 -55.852776 33.803051
-2.9969969 -2.7896063 25.338337
49.623604 -55.288921 30.107969
-34.35424 28.255802 37.599392
2.495672 -8.1967468 19.879686
49.690845 -55.782494 32.863953
9.7538099 -14.638319 15.464488
5.2120495 -11.386716 17.231501
11.005574 -16.502237 15.004392
49.841316 -55.130627 23.134846
35.441517 -40.260086 22.797333
-37.091972 31.081699 42.686096
12.402253 -17.391109 15.045776
-26.564991 21.750011 24.647003
-39.571789 33.96365 37.852951
-13.41338 8.0800142 21.135586
-28.978325 22.96739 53.09869
-26.660322 21.482357 55.448975
-33.085915 27.613625 35.127388
49.034443 -54.06992 33.342735
18.746716 -23.950291 15.193377
39.990276 -44.469994 45.298264
-25.070715 19.848701 57.040585
35.502972 -39.726585 43.773243
-38.424068 32.552055 41.3629
8.010972 -13.135519 16.159536
51.371964 -56.291035 25.335623
46.701866 -51.15501 22.409094
-28.511976 22.741135 23.140963
47.342201 -52.683598 41.886753
-22.838249 17.534071 22.545792
-23.296402 18.170694 58.564201
-35.506859 29.753643 38.117405
-30.124237 26.837032 30.397108
47.76474 -52.286732 22.717937
48.918312 -54.001034 30.656912
49.308147 -53.945175 22.731245
21.871447 -26.472256 49.923695
25.319435 -29.48597 47.881325
-32.91177 28.258028 46.944572
36.989853 -42.347744 22.578325
-21.420498 16.445169 59.951923
-39.795376 34.27533 40.72654
25.778093 -29.923225 19.295771
45.456856 -50.000965 44.409725
47.407158 -52.162289 25.002277
-43.61499 38.394165 38.864765
33.232166 -37.306976 43.837482
17.173086 -22.416733 53.757072
-19.250633 14.421229 61.294834
49.452572 -53.197464 23.245115
48.058842 -52.508026 24.322058
43.420776 -47.181759 22.354362
18.355629 -21.554922 14.780495
46.76318 -51.169224 43.430157
7.4875813 -12.302774 16.344528
-27.681837 22.392975 22.376896
-44.232014 39.315567 40.314869
47.484787 -52.517437 25.563787
47.868145 -53.027901 25.305477
-29.67659 25.574972 28.771786
-33.947399 28.92136 36.954216
-16.561014 11.983437 62.589394
-42.432285 37.456783 37.715004
14.105247 -18.542171 57.076466
-49.834305 44.86002 39.741348
47.867481 -52.832474 24.441298
-37.471092 32.687519 43.037849
-21.623388 16.988693 22.448242
6.6412807 -10.985283 61.951
9.2258282 -13.473248 60.721527
3.9608319 -8.3007765 62.992325
1.4014189 -5.7534828 63.798855
11.672399 -16.142647 59.071663
-13.471334 9.0769405 63.635239
-0.94708997 -2.7422814 64.662628
51.097748 -54.103951 37.840004
-14.368172 10.029507 21.157055
-54.324898 49.454838 41.601772
-16.496243 11.658772 19.840601
50.355 -54.971577 32.164009
-10.338778 6.0552988 64.382553
-35.668175 30.868603 37.169727
50.323437 -54.352085 30.855698
-58.411678 53.680069 44.225517
-25.855928 21.301025 21.091858
-49.538193 44.800556 41.039295
48.520824 -52.185905 24.875662
-44.869461 40.175617 37.584213
-32.288971 28.223791 34.727013
-33.64727 29.761999 46.00069
-53.103447 48.507763 42.308666
-38.836964 33.914505 36.743835
51.781021 -55.704777 23.438755
-62.163445 57.60347 47.766724
-49.608833 45.062252 38.48872
47.554317 -51.686928 26.505436
30.614588 -34.707676 44.683342
49.637787 -53.275646 22.874193
49.361591 -53.806389 32.83654
-39.507557 35.019295 41.985229
-8.2059631 5.3222828 24.077021
51.731365 -55.159779 28.93218
-57.735126 53.229218 45.121151
-54.267334 49.781952 40.472431
-6.3718543 2.9774964 25.13249
33.540028 -37.220581 22.319391
7.8225098 -11.936096 16.648485
-17.831987 13.397809 19.993299
-66.195305 61.777523 50.315178
27.736702 -31.630129 20.42062
-58.339977 53.991493 43.075409
-61.931499 57.568428 48.977467
-24.599653 20.293541 23.835081
38.401573 -40.542255 44.537354
-21.437214 17.088511 20.005701
-70.444542 66.20649 51.9282
-4.2707009 0.48530078 26.274799
-28.342752 24.423145 25.358339
-19.481243 15.174343 20.036001
-42.048531 38.100452 36.540001
30.728754 -34.365189 21.725492
48.41217 -51.59523 26.381599
-23.716927 19.501947 20.33363
49.571873 -53.687965 32.286274
12.035989 -15.52726 15.405567
-62.162956 58.052406 46.73296
-65.942863 61.735828 51.439739
52.838474 -56.004776 24.588524
51.809715 -55.018513 31.893776
-39.426392 35.808979 35.890461
-31.92524 28.25272 48.043938
50.486313 -52.800449 39.766144
-81.278168 77.254036 53.706944
21.02173 -23.723253 51.850079
-27.863871 24.44569 53.39901
47.429935 -50.884773 25.874277
-15.553364 11.999529 21.247454
9.6703138 -13.088486 16.143404
3.6328521 -6.2855816 20.327423
-44.189247 40.173187 41.573925
-70.047798 66.010574 52.976303
-66.251907 62.265697 49.355709
-25.094454 23.73311 23.475311
46.254623 -49.83633 25.166489
50.9827 -54.494949 30.540655
49.674385 -53.838806 31.15863
-32.523903 29.128374 35.547138
-81.440712 77.618729 54.78006
-48.717972 44.848713 42.132111
50.979755 -53.652702 23.411474
46.267342 -49.557735 24.82453
-33.123642 29.817625 36.056858
-70.308739 66.477448 50.946785
-34.955521 31.040098 36.633629
47.536335 -51.89402 42.528069
-36.664394 33.388779 44.096561
49.267464 -52.551846 25.149981
22.384682 -25.727846 16.29583
50.823803 -52.555447 21.212563
-85.57122 82.04454 54.47897
51.831791 -54.788338 22.610498
-52.667034 48.945786 43.519096
-80.809868 77.156998 52.71833
17.754454 -18.351929 14.841436
-19.693998 16.34923 20.749903
-45.028584 41.380669 36.636845
-10.066342 7.2410564 23.2372
-56.880096 53.254742 46.103554
5.1609955 -8.2591333 18.817955
38.637211 -40.237846 21.759953
-60.779629 57.243904 49.76667
37.118553 -38.710087 22.230833
-85.466309 82.077263 55.340431
-49.22942 45.662857 37.539127
-22.095327 18.844646 20.684509
-37.624702 34.362255 35.787865
-53.96273 50.464245 39.610104
42.802189 -42.597038 45.59549
-58.231861 54.861801 42.320625
-65.29995 61.89735 52.486031
-85.411163 82.211662 53.7066
51.038578 -53.791405 22.405214
20.504314 -23.372751 15.296614
50.420872 -52.565464 23.508711
-69.453171 66.207558 54.012455
-3.3400998 0.5404892 65.095779
8.6828432 -11.552525 16.724464
-6.4009447 3.5634947 65.01944
52.259129 -54.861282 30.652962
-62.220909 59.055103 46.233711
-81.006958 77.931145 55.754982
50.413502 -51.527763 20.810427
-38.880569 35.836071 43.001686
-66.732719 63.684895 48.981007
12.550184 -14.044925 60.028881
52.858391 -55.792522 26.552162
39.063511 -42.45293 21.947041
-23.612061 22.328043 22.384716
52.164341 -52.972046 23.469273
1.1685991 -0.96669871 24.404137
0.47607642 -0.2971389 24.512262
44.605034 -46.32346 21.824108
1.9820136 -1.7606304 23.926451
0.0060736961 0.19218227 24.745699
-21.625961 20.667612 21.808878
-70.316345 67.383461 50.264679
48.801716 -51.202637 24.58403
2.285357 -2.1779268 23.210033
-84.801979 81.985275 56.156879
-13.389365 11.098387 22.502775
-0.67619711 0.87353611 24.921211
-3.605835 3.6893356 26.2792
33.25481 -34.682594 44.847214
53.547218 -55.562954 25.526373
-1.3995798 0.58579588 25.386864
-80.155884 77.35421 51.938381
47.333439 -49.659027 25.659239
-3.2258363 -0.12699473 26.15052
22.68021 -23.981703 51.171383
-43.635048 40.939529 42.549583
14.300368 -15.980755 58.628582
-26.585415 24.744825 24.892458
50.237324 -52.477684 25.649029
24.293495 -24.096514 50.579693
36.630161 -37.494408 44.447098
16.055422 -17.402859 57.345348
-34.166813 31.371367 36.174732
46.988026 -49.26284 27.448242
-84.881111 82.366699 53.046303
-41.373573 38.743748 35.759399
-48.357407 45.787502 43.181168
-85.991165 83.474922 55.149826
-30.141582 28.564337 32.765171
-51.97105 49.513935 44.483173
-35.00209 33.165882 45.188084
47.973209 -50.471039 27.476845
28.952614 -30.990396 46.16127
-44.347263 42.024902 35.867867
-30.525652 27.096037 49.980469
-56.132195 53.745884 47.056648
-28.074577 25.740393 26.951271
45.571331 -45.365555 45.704659
47.587925 -49.413651 26.330467
53.565731 -54.080238 32.069061
-24.92107 23.353701 55.841873
46.675468 -46.563267 45.308014
-59.727943 57.365635 50.412846
30.697256 -32.270805 45.404327
-22.881029 22.189259 57.475212
-39.033768 36.654255 35.433674
-21.07235 20.502859 58.986755
-85.729599 84.152367 53.734676
-19.213081 16.392179 21.136147
52.261253 -53.233067 22.3444
44.639893 -46.878841 27.177162
-31.697475 30.142513 47.553486
-48.766621 46.407188 36.923969
-64.593491 62.344124 53.379234
48.963165 -50.355366 24.814566
-54.173752 51.957375 39.333843
-19.143253 18.690866 60.387718
45.906197 -48.062107 28.08083
34.256443 -35.617298 21.90382
-68.822296 66.686287 54.843445
-33.112885 31.701735 46.347298
27.426947 -28.801289 19.10298
-17.572254 16.008125 61.646774
40.14003 -39.79961 44.793079
-58.229668 56.108593 42.17329
53.823627 -53.619144 34.827778
50.685379 -51.93346 23.325293
47.913254 -49.775631 25.564127
52.29644 -53.4464 23.136244
48.32634 -48.089428 44.337296
-80.551559 78.531738 56.542164
46.158142 -48.157475 27.537458
-61.144405 59.139008 45.097324
-14.014556 14.21371 63.052361
31.667978 -32.760838 21.174095
15.769563 -15.596964 15.04466
29.288671 -30.162312 20.015213
-63.06366 61.088448 46.604939
8.3085375 -9.7397585 62.242886
5.2281289 -6.5316057 63.44265
-83.953186 82.579567 57.107395
49.186394 -51.094311 27.358879
54.458492 -55.670597 25.464224
20.1775 -20.192802 14.96388
-10.981855 11.182534 64.086876
10.692177 -11.894113 61.214027
-66.706238 64.803642 48.680576
-8.6908064 7.4598293 64.730988
-85.878166 84.449112 54.7075
13.774788 -13.805144 15.346807
-70.057098 68.220924 49.799236
-85.53894 84.764503 56.082363
-17.768496 16.823982 21.957582
-76.960274 75.207436 50.943848
-85.280823 83.356697 56.541344
-83.386986 81.674835 52.293724
-19.57115 18.694065 21.670591
-14.760427 14.227388 22.938759
35.064049 -36.136723 44.474777
53.955925 -54.890347 23.494005
54.111893 -54.551258 29.308451
47.024666 -48.095882 26.63308
51.737167 -52.711491 24.478655
54.433102 -55.025188 24.734383
27.741627 -26.526159 48.233093
40.308434 -41.337452 21.58959
50.799057 -52.249775 23.744715
-84.944244 84.069557 52.951694
-37.239643 35.761791 43.949345
52.631676 -51.959103 38.881443
54.34922 -55.969456 25.898344
-39.198193 37.758278 43.442291
45.738369 -46.545189 27.976307
-7.1240373 5.6900768 24.647495
45.953545 -46.419659 25.832644
46.285305 -47.561478 28.45429
53.883255 -54.812252 25.997053
49.939713 -50.533123 24.09623
-2.3961844 2.888077 26.526636
-32.443016 31.791927 35.747433
-43.442207 42.187099 43.164898
-35.36079 34.775032 35.454437
49.795185 -49.589981 42.836872
-31.162598 30.754078 35.282543
5.560884 -5.4414473 19.680073
-9.186038 8.0935917 23.92477
51.582573 -52.390148 21.0797
-48.277882 47.073006 43.87582
49.799088 -50.683315 25.305593
-52.126766 50.971954 45.467278
-44.143948 43.120239 35.485577
49.063988 -49.572514 28.07691
-38.568867 37.363129 35.238678
53.028851 -53.355507 22.563034
-55.38129 54.278061 47.630829
47.53817 -48.628613 27.96994
-58.840446 57.749172 50.839012
53.991318 -53.795849 33.586605
48.601311 -50.02634 26.015285
-63.391827 62.359074 53.667088
-49.517761 48.523571 37.006111
25.318939 -25.116999 16.911003
-30.26672 30.035881 48.555965
-26.323256 25.443035 53.898602
-68.066994 67.077805 55.341816
-26.401882 26.419329 26.74791
-54.429955 53.495037 39.477386
45.135498 -45.821003 26.431377
-29.896475 30.016029 33.987198
-71.696098 70.755814 55.821545
52.019726 -52.731766 23.136574
-57.517586 57.009571 41.786797
-79.791901 78.880043 56.980785
22.596968 -22.4156 15.588182
-11.515151 11.157749 23.579903
-61.563412 60.683956 45.619537
-28.092775 27.900263 29.93836
55.032959 -55.518661 26.372303
-65.739204 64.920975 48.192627
-24.949862 25.302814 24.893736
1.4950699 -0.64904332 64.935234
9.1090136 -8.6486931 17.341906
-1.4101424 2.1353743 65.30497
-69.36158 68.556229 49.500294
-4.4593515 5.1013465 65.254822
45.236694 -45.668697 21.707111
47.707047 -47.991405 26.442804
-78.901619 78.155212 51.147499
54.805206 -54.983906 24.870729
-85.14109 84.300751 56.799332
52.204178 -52.001328 23.141298
11.808383 -11.659563 15.942283
47.043354 -49.159065 21.677998
51.115112 -50.588818 41.278217
48.557178 -47.369568 21.512379
53.382172 -52.389408 22.313593
50.603466 -50.400635 24.301317
-21.422091 21.897503 22.428587
-12.424105 12.524467 23.690252
52.350105 -52.146976 22.804249
-23.681471 23.833305 23.481962
55.779507 -55.11808 25.798742
53.461525 -53.171585 22.748331
49.936829 -49.638493 24.629848
54.344444 -54.227383 23.484938
-9.3150892 9.9520569 23.929869
3.7374637 -3.2380252 21.87808
25.177343 -20.843941 15.756898
28.712444 -27.751596 19.109299
32.879486 -31.506979 21.128147
0.25223374 3.801465 26.271671
-6.8716669 7.0731959 24.537407
-7.4617853 8.536972 64.785767
-16.150763 17.381598 61.707123
-31.11138 31.759739 47.27343
-33.096756 33.798946 45.798172
-36.242836 36.44302 44.222073
-37.880375 38.080376 35.168034
-38.549488 38.749489 43.626568
-43.672092 43.872093 35.375099
-42.952084 43.152084 43.360298
-48.745399 48.9454 36.829174
-48.094551 48.294552 44.213676
-51.823204 52.023205 45.880791
-53.793381 53.993385 39.30743
-54.581383 54.781387 47.721806
-57.802364 58.002365 50.706081
-59.851227 60.586033 44.682743
-60.902004 61.102005 52.846943
-61.528175 62.303879 46.077633
-65.376732 65.576736 48.180878
-64.768448 64.968452 54.685585
-68.941666 69.141663 49.437943
-68.205818 68.405823 55.658356
-71.057106 71.257111 55.968067
-75.439461 75.639465 50.497883
-78.982651 79.182655 57.097393
-83.58165 83.442116 52.292858
-83.463943 83.663948 57.366592
-84.24572 85.249573 56.849461
-84.298256 85.559235 53.415691
-85.204689 85.404694 54.536831
35.83112 -34.048973 21.894028
9.9272947 -8.2338333 62.23328
37.917942 -37.712822 22.322006
40.122803 -38.923397 21.734781
41.568729 -40.044182 21.591148
16.664619 -14.818479 58.195732
50.030769 -50.038342 20.809282
22.32991 -21.24848 52.719078
45.899918 -45.018841 26.366844
46.615284 -45.724861 25.842665
52.382179 -51.850658 21.052307
46.220253 -45.033367 27.180292
22.020437 -22.169815 52.439144
50.174934 -48.381756 26.030142
46.979115 -46.7761 28.560816
52.989891 -51.913235 23.105293
53.152992 -52.30431 23.269217
48.595573 -47.573727 28.079529
32.01368 -28.547495 45.891693
32.156158 -30.796366 45.404682
49.907528 -50.350327 27.739212
34.289764 -33.75111 44.927063
36.986519 -36.124859 44.482643
37.697689 -37.284668 44.646709
-17.396172 17.988649 21.950171
-12.500481 13.26014 23.800388
-18.873465 19.885498 21.808084
55.092926 -53.752247 23.492943
51.899517 -50.762718 23.245035
54.228146 -52.540192 22.55125
55.099941 -54.440662 24.944635
53.539783 -53.014702 23.306791
54.673092 -53.493565 30.098309
50.58353 -49.513416 25.466539
48.399475 -47.302753 26.560394
-10.061792 11.044919 24.170639
52.213169 -51.915245 25.12137
51.496113 -50.397251 20.701694
55.015911 -53.679543 25.996845
52.734646 -51.119034 21.15682
52.983158 -51.133614 23.281206
-82.831985 84.630836 52.600639
-21.914436 23.28232 23.099766
14.605179 -10.63025 15.725853
53.215694 -52.785404 37.276562
-81.916725 83.059113 52.050083
54.434551 -53.145355 32.117332
38.901695 -36.924953 22.22649
-84.206032 85.890091 55.969391
56.17046 -54.166435 25.850401
-75.591393 76.735825 50.703838
-68.356224 69.561584 49.500294
14.123219 -12.532861 60.010925
52.739983 -50.112789 25.539373
55.766479 -53.343372 25.526083
9.6179085 -6.9729934 17.768677
-82.379562 84.153191 57.107395
-64.72097 65.939209 48.192627
12.139899 -10.435442 61.206528
6.669446 -4.853476 63.472569
-84.249107 86.078171 54.7075
44.651657 -44.446384 45.839493
22.175589 -17.9459 14.796372
30.867626 -28.661139 20.091932
53.860443 -50.930145 23.401796
-78.680038 79.991905 56.980785
-56.562496 57.904873 41.854294
6.8838325 -3.9406569 19.833557
23.809416 -19.765837 15.237076
-24.492525 26.759926 26.309803
51.120487 -49.154411 27.528423
-70.555809 71.896103 55.821545
-53.295036 54.629955 39.477386
-66.8778 68.266998 55.341816
-11.425643 13.016228 23.728868
-27.959145 32.242458 34.424171
-14.458516 16.260702 22.356131
-48.32357 49.717762 37.006111
-26.747952 29.057718 51.370003
-25.556572 27.677254 27.795794
55.874134 -54.254784 25.463974
-23.78475 25.881466 55.104656
-62.159069 63.591831 53.667088
-42.920238 44.343948 35.485577
48.261322 -46.7873 26.625952
-29.449455 31.51354 47.963947
-15.189074 17.803968 21.626715
-57.549171 59.040447 50.839012
-37.163128 38.768867 35.238678
-54.07806 55.581291 47.630829
50.399452 -48.128399 27.757528
46.934063 -44.582733 26.895025
50.529392 -48.670258 24.811184
-50.771954 52.326767 45.467278
-29.242882 31.951199 34.996437
-46.873005 48.477882 43.87582
-34.333309 35.934151 35.51466
47.764435 -46.082222 28.454088
-41.987099 43.642208 43.164898
-5.6481347 8.3607321 24.346725
-30.030918 32.563316 35.564613
0.87323225 3.659354 26.001406
52.801163 -50.312824 23.45138
-22.779779 24.853809 24.224831
-31.446438 33.231472 35.824165
-37.558277 39.398193 43.442291
-7.6481028 10.22737 24.511629
-83.156693 85.480827 56.541344
-5.5198526 7.3096709 24.644762
47.308823 -44.664219 27.542698
-35.565125 37.442638 43.948189
49.55809 -47.376888 26.336849
49.490273 -43.958752 44.906433
11.80533 -8.5924301 16.6703
51.365162 -49.550476 24.532347
-18.917772 21.116333 21.778334
49.978405 -47.710373 25.563822
52.707108 -50.212276 21.368931
55.146156 -51.641895 31.689421
22.307121 -19.389956 53.36092
46.389835 -44.624313 21.773203
49.861706 -47.130417 25.658834
-27.194773 29.629856 31.016224
-77.533966 79.679451 51.413151
35.613262 -32.865005 44.59705
-68.02092 70.257103 49.799236
55.103699 -52.200382 30.426603
-83.316071 85.947227 53.772327
53.994164 -50.835175 22.404795
-64.603638 66.906242 48.680576
-16.665874 19.449646 21.367977
16.714357 -12.303346 15.308381
50.492481 -47.006416 21.815664
-60.888443 63.263664 46.604939
-20.09889 22.645992 22.293459
41.010536 -37.888691 44.467728
-78.331741 80.751556 56.542164
-58.939007 61.344406 45.097324
48.360229 -45.955105 27.537159
33.786522 -30.055086 21.356955
29.96122 -25.625538 19.195971
52.637985 -47.514591 41.944527
52.528309 -47.063103 42.449844
-55.908592 58.429668 42.17329
-66.486282 69.022301 54.843445
49.46579 -46.78487 27.447865
-31.368031 34.14513 45.8162
55.99604 -52.654335 26.551912
48.264874 -45.703064 28.080429
-11.226414 13.732608 22.779144
33.767899 -30.465374 45.055866
51.374645 -46.557854 43.429214
20.145027 -14.814878 14.95197
53.400032 -49.249363 23.244619
-51.75737 54.373749 39.333843
-62.144119 64.793495 53.379234
44.673927 -39.784847 45.297531
54.646198 -50.064186 38.11311
26.962229 -21.99935 16.714203
-36.454254 39.233768 35.433674
56.207966 -52.634995 24.587904
-17.023249 20.71101 60.219437
-46.207188 48.966621 36.923969
51.458397 -48.558025 24.593513
55.701946 -51.490044 34.836617
-18.800173 22.551388 58.864178
-41.824902 44.547264 35.867867
-57.165634 59.927944 50.412846
-20.504297 24.298927 57.375607
-26.889278 30.723967 49.984852
-82.166695 85.081116 53.046303
53.47823 -49.434769 22.873569
-53.545883 56.332195 47.056648
-9.4235182 12.238132 23.042
-4.295845 8.8877754 25.07156
-7.7359686 11.074621 23.326715
-83.274918 86.19117 55.149826
29.997326 -25.303967 47.68713
-49.313931 52.171055 44.483173
49.760139 -46.064503 24.824026
51.634727 -48.418919 26.687424
-34.162254 37.824703 35.787865
41.370884 -38.154419 21.897352
-20.942587 24.030838 23.023514
-45.587502 48.557407 43.181168
-81.785271 85.001984 56.156879
-40.739525 43.835045 42.549583
52.388638 -48.317848 24.874996
56.052387 -51.258945 33.659912
-31.226387 34.427097 36.168316
37.508873 -33.023384 43.834248
51.356598 -46.497337 22.408997
-18.277494 21.673431 21.578928
-77.154205 80.355888 51.938381
-13.945139 17.030949 25.276644
55.907627 -51.577454 23.438055
-22.268801 25.824711 24.554163
-82.011658 85.611168 53.7066
-17.738216 20.936907 25.270031
55.352741 -51.638084 29.007469
39.935493 -35.303631 43.774071
-15.156383 18.338463 25.495178
52.837765 -49.232132 25.000174
-67.183456 70.51635 50.264679
2.5707855 4.2470036 25.435663
54.991188 -51.628437 22.610064
44.314976 -39.809822 22.116983
-0.83720899 5.5858054 25.909105
-35.636093 39.080593 43.001682
-81.877258 85.666313 55.340431
5.2977514 0.28474975 23.306164
47.056854 -43.610035 22.139008
-3.3291721 6.8705888 24.989037
-63.48489 66.932724 48.981007
47.778374 -40.98119 45.342964
5.3253756 1.3015584 24.485844
-77.73114 81.206963 55.754982
